1.9685,8.844,3.7415,1,1,1
1.9676,8.8527,3.7397,1,1,1
1.9625,8.8565,3.7388,1,1,1
1.9648,8.8542,3.7393,1,1,1
1.9732,8.8444,3.7415,1,1,1
1.978,8.8456,3.7414,1,1,1
1.9784,8.8434,3.7419,1,1,1
1.9774,8.8507,3.7403,1,1,1
1.9726,8.855,3.7393,1,1,1
1.9729,8.859,3.7385,1,1,1
1.9773,8.8555,3.7393,1,1,1
1.9831,8.824,3.7459,1,1,1
1.9821,8.8321,3.7442,1,1,1
1.9881,8.8251,3.7457,1,1,1
1.9891,8.8282,3.7451,1,1,1
1.9803,8.8331,3.744,1,1,1
1.984,8.8388,3.7429,1,1,1
1.9875,8.8349,3.7437,1,1,1
1.9851,8.8414,3.7424,1,1,1
1.9925,8.8261,3.7455,1,1,1
1.9937,8.8316,3.7445,1,1,1
1.9994,8.8269,3.7455,1,1,1
1.9974,8.8327,3.7444,1,1,1
1.9934,8.8368,3.7435,1,1,1
1.9936,8.8403,3.7428,1,1,1
1.9979,8.835,3.7439,1,1,1
1.9958,8.8421,3.7425,1,1,1
1.984,8.8506,3.7405,1,1,1
1.9886,8.8471,3.7414,1,1,1
1.9897,8.8438,3.742,1,1,1
1.989,8.8502,3.7407,1,1,1
1.9821,8.8537,3.7398,1,1,1
1.9821,8.8583,3.7389,1,1,1
1.9895,8.855,3.7398,1,1,1
1.9871,8.8602,3.7387,1,1,1
1.9924,8.8445,3.742,1,1,1
1.998,8.8474,3.7415,1,1,1
1.9963,8.8512,3.7407,1,1,1
1.9922,8.8563,3.7396,1,1,1
1.9987,8.8549,3.7401,1,1,1
1.9976,8.8608,3.7389,1,1,1
2.0009,8.7059,3.7695,1,1,1
2.0023,8.7109,3.7687,1,1,1
2.0083,8.7049,3.7697,1,1,1
2.0071,8.7103,3.7688,1,1,1
2.0091,8.7229,3.7667,1,1,1
2.004,8.7134,3.7683,1,1,1
2.0016,8.7225,3.7668,1,1,1
2.007,8.716,3.7679,1,1,1
2.0081,8.72,3.7672,1,1,1
2.0135,8.7045,3.7698,1,1,1
2.0164,8.7072,3.7694,1,1,1
2.019,8.7104,3.7689,1,1,1
2.0107,8.7155,3.768,1,1,1
2.0127,8.7201,3.7672,1,1,1
2.0168,8.7165,3.7679,1,1,1
2.0157,8.7207,3.7671,1,1,1
2.0042,8.7258,3.7662,1,1,1
2.0029,8.729,3.7656,1,1,1
2.0068,8.7237,3.7666,1,1,1
2.0073,8.7309,3.7652,1,1,1
2.0022,8.7383,3.7638,1,1,1
2.0064,8.7343,3.7646,1,1,1
2.0061,8.7414,3.7631,1,1,1
2.0144,8.73,3.7654,1,1,1
2.0194,8.7249,3.7664,1,1,1
2.0169,8.7282,3.7657,1,1,1
2.0147,8.7347,3.7645,1,1,1
2.0126,8.742,3.763,1,1,1
2.0151,8.7362,3.7642,1,1,1
2.0197,8.7403,3.7633,1,1,1
2.0233,8.7048,3.7699,1,1,1
2.023,8.7096,3.7691,1,1,1
2.0275,8.7048,3.7699,1,1,1
2.0287,8.7096,3.7691,1,1,1
2.0235,8.7147,3.7682,1,1,1
2.0223,8.7189,3.7675,1,1,1
2.0272,8.7147,3.7682,1,1,1
2.0284,8.7219,3.767,1,1,1
2.0344,8.7128,3.7687,1,1,1
2.0373,8.7034,3.7703,1,1,1
2.0307,8.7174,3.7678,1,1,1
2.0373,8.7149,3.7683,1,1,1
2.0359,8.7228,3.7669,1,1,1
2.0238,8.73,3.7654,1,1,1
2.0252,8.7245,3.7665,1,1,1
2.0244,8.7363,3.7641,1,1,1
2.0229,8.7403,3.7633,1,1,1
2.0293,8.7338,3.7646,1,1,1
2.0289,8.7392,3.7635,1,1,1
2.0328,8.7304,3.7654,1,1,1
2.0353,8.7257,3.7663,1,1,1
2.0357,8.7305,3.7653,1,1,1
2.0336,8.737,3.764,1,1,1
2.0342,8.7415,3.763,1,1,1
2.0392,8.7336,3.7647,1,1,1
2.0039,8.7505,3.7613,1,1,1
1.9999,8.7482,3.7618,1,1,1
2.0073,8.7508,3.7612,1,1,1
2.0032,8.7539,3.7605,1,1,1
2.0066,8.7537,3.7605,1,1,1
2.0051,8.7584,3.7595,1,1,1
2.0115,8.7461,3.7621,1,1,1
2.0145,8.7524,3.7608,1,1,1
2.0158,8.7524,3.7608,1,1,1
2.01,8.7571,3.7598,1,1,1
2.0103,8.7594,3.7593,1,1,1
2.0156,8.7553,3.7601,1,1,1
2.0181,8.7593,3.7592,1,1,1
2.0081,8.7723,3.7564,1,1,1
2.0048,8.7745,3.756,1,1,1
2.0028,8.7801,3.7548,1,1,1
2.0071,8.7744,3.756,1,1,1
2.0051,8.7813,3.7545,1,1,1
2.0154,8.7706,3.7567,1,1,1
2.0125,8.7754,3.7557,1,1,1
2.013,8.7786,3.755,1,1,1
2.0177,8.7796,3.7548,1,1,1
2.0026,8.7648,3.7581,1,1,1
2.0027,8.7699,3.757,1,1,1
2.0063,8.7663,3.7578,1,1,1
2.0073,8.769,3.7572,1,1,1
2.0124,8.7658,3.7578,1,1,1
2.017,8.7653,3.7579,1,1,1
2.0246,8.7448,3.7624,1,1,1
2.023,8.7514,3.7609,1,1,1
2.0278,8.7511,3.761,1,1,1
2.0223,8.7564,3.7598,1,1,1
2.0245,8.7588,3.7593,1,1,1
2.0287,8.7558,3.7599,1,1,1
2.0267,8.7603,3.7589,1,1,1
2.0325,8.7445,3.7624,1,1,1
2.0336,8.7513,3.7609,1,1,1
2.0385,8.7464,3.762,1,1,1
2.0368,8.7514,3.7609,1,1,1
2.0339,8.7575,3.7595,1,1,1
2.0322,8.7617,3.7586,1,1,1
2.0374,8.758,3.7594,1,1,1
2.0358,8.7615,3.7586,1,1,1
2.0226,8.7723,3.7563,1,1,1
2.0274,8.7724,3.7562,1,1,1
2.0271,8.777,3.7552,1,1,1
2.0257,8.7819,3.7542,1,1,1
2.0332,8.7717,3.7563,1,1,1
2.0371,8.7718,3.7563,1,1,1
2.0311,8.7765,3.7553,1,1,1
2.031,8.7829,3.7539,1,1,1
2.0368,8.7791,3.7547,1,1,1
2.0226,8.7646,3.758,1,1,1
2.0247,8.7695,3.7569,1,1,1
2.029,8.7662,3.7576,1,1,1
2.0343,8.7659,3.7576,1,1,1
2.043,8.7042,3.7703,1,1,1
2.0403,8.709,3.7694,1,1,1
2.0469,8.7069,3.7699,1,1,1
2.0486,8.7112,3.7692,1,1,1
2.0439,8.7135,3.7687,1,1,1
2.0415,8.7209,3.7673,1,1,1
2.0492,8.7144,3.7686,1,1,1
2.0476,8.7193,3.7677,1,1,1
2.0514,8.7049,3.7704,1,1,1
2.0532,8.7107,3.7694,1,1,1
2.0566,8.7065,3.7702,1,1,1
2.0558,8.7101,3.7696,1,1,1
2.054,8.716,3.7684,1,1,1
2.0532,8.7193,3.7678,1,1,1
2.056,8.7203,3.7676,1,1,1
2.0402,8.7252,3.7664,1,1,1
2.0481,8.7256,3.7664,1,1,1
2.0416,8.7362,3.7642,1,1,1
2.0436,8.7404,3.7633,1,1,1
2.0479,8.7392,3.7636,1,1,1
2.0504,8.7278,3.7661,1,1,1
2.0514,8.7318,3.7652,1,1,1
2.0576,8.7328,3.7651,1,1,1
2.0498,8.7236,3.7669,1,1,1
2.0587,8.7231,3.7671,1,1,1
2.053,8.7412,3.7632,1,1,1
2.0567,8.7361,3.7644,1,1,1
2.0564,8.7408,3.7634,1,1,1
2.063,8.7059,3.7705,1,1,1
2.0608,8.7087,3.7699,1,1,1
2.0678,8.7076,3.7704,1,1,1
2.0688,8.7129,3.7694,1,1,1
2.0628,8.717,3.7685,1,1,1
2.0623,8.7194,3.768,1,1,1
2.0652,8.7156,3.7688,1,1,1
2.0687,8.721,3.7678,1,1,1
2.0718,8.7105,3.7699,1,1,1
2.0765,8.7068,3.7708,1,1,1
2.0783,8.7096,3.7703,1,1,1
2.0728,8.7159,3.7689,1,1,1
2.0722,8.7213,3.7679,1,1,1
2.0771,8.721,3.768,1,1,1
2.062,8.7263,3.7666,1,1,1
2.0621,8.7311,3.7656,1,1,1
2.0666,8.732,3.7655,1,1,1
2.0628,8.725,3.7669,1,1,1
2.0693,8.7253,3.767,1,1,1
2.0642,8.7386,3.764,1,1,1
2.0697,8.7359,3.7647,1,1,1
2.0669,8.741,3.7635,1,1,1
2.0746,8.727,3.7667,1,1,1
2.0775,8.7302,3.7661,1,1,1
2.0749,8.725,3.7672,1,1,1
2.0738,8.7341,3.7652,1,1,1
2.0721,8.739,3.7641,1,1,1
2.0755,8.7357,3.7649,1,1,1
2.0776,8.741,3.7638,1,1,1
2.0427,8.7431,3.7627,1,1,1
2.0462,8.7458,3.7621,1,1,1
2.0468,8.7522,3.7607,1,1,1
2.0423,8.7542,3.7603,1,1,1
2.0417,8.7605,3.7588,1,1,1
2.0473,8.7614,3.7586,1,1,1
2.0525,8.7469,3.762,1,1,1
2.0533,8.7513,3.761,1,1,1
2.0512,8.7563,3.7598,1,1,1
2.0526,8.7609,3.7588,1,1,1
2.0577,8.7558,3.76,1,1,1
2.0557,8.7604,3.7589,1,1,1
2.0419,8.7716,3.7563,1,1,1
2.0472,8.7717,3.7563,1,1,1
2.0427,8.7775,3.755,1,1,1
2.0426,8.7822,3.754,1,1,1
2.045,8.7736,3.7559,1,1,1
2.0485,8.7806,3.7544,1,1,1
2.0522,8.7727,3.7561,1,1,1
2.0531,8.7746,3.7557,1,1,1
2.0528,8.7805,3.7544,1,1,1
2.0573,8.7759,3.7554,1,1,1
2.0581,8.7806,3.7544,1,1,1
2.042,8.7637,3.7581,1,1,1
2.0405,8.7693,3.7568,1,1,1
2.0479,8.7639,3.7581,1,1,1
2.0531,8.7648,3.7579,1,1,1
2.0553,8.767,3.7574,1,1,1
2.0618,8.7458,3.7623,1,1,1
2.0636,8.7519,3.761,1,1,1
2.0685,8.7465,3.7623,1,1,1
2.0661,8.7519,3.761,1,1,1
2.0611,8.7546,3.7603,1,1,1
2.067,8.7565,3.76,1,1,1
2.0694,8.7604,3.7591,1,1,1
2.0727,8.7453,3.7627,1,1,1
2.0711,8.7524,3.761,1,1,1
2.0788,8.7452,3.7629,1,1,1
2.0763,8.7522,3.7612,1,1,1
2.0728,8.7539,3.7607,1,1,1
2.071,8.7583,3.7597,1,1,1
2.0786,8.7564,3.7603,1,1,1
2.0769,8.7596,3.7595,1,1,1
2.0676,8.7727,3.7563,1,1,1
2.061,8.7753,3.7556,1,1,1
2.0625,8.7792,3.7548,1,1,1
2.065,8.7767,3.7554,1,1,1
2.0662,8.7821,3.7543,1,1,1
2.0734,8.7727,3.7565,1,1,1
2.0714,8.7773,3.7554,1,1,1
2.0723,8.7794,3.755,1,1,1
2.0754,8.774,3.7562,1,1,1
2.0767,8.7814,3.7547,1,1,1
2.0622,8.7652,3.7579,1,1,1
2.0609,8.7691,3.757,1,1,1
2.0648,8.7664,3.7577,1,1,1
2.0724,8.7665,3.7578,1,1,1
2.0772,8.7708,3.757,1,1,1
2.0023,8.7852,3.7537,1,1,1
2.0083,8.7871,3.7532,1,1,1
2.0066,8.7912,3.7524,1,1,1
2.0046,8.796,3.7514,1,1,1
2.0079,8.7962,3.7514,1,1,1
2.0087,8.7989,3.7508,1,1,1
2.0103,8.7864,3.7534,1,1,1
2.0138,8.7917,3.7523,1,1,1
2.0172,8.7846,3.7537,1,1,1
2.0134,8.8002,3.7506,1,1,1
2.0178,8.7958,3.7514,1,1,1
2.0188,8.7935,3.7519,1,1,1
2.0015,8.8058,3.7495,1,1,1
2.0033,8.8118,3.7483,1,1,1
2.0072,8.8051,3.7496,1,1,1
2.0031,8.8221,3.7464,1,1,1
2.0021,8.8152,3.7477,1,1,1
2.0075,8.8171,3.7474,1,1,1
2.0112,8.8065,3.7494,1,1,1
2.0125,8.809,3.7489,1,1,1
2.0164,8.8042,3.7498,1,1,1
2.0189,8.8124,3.7483,1,1,1
2.0191,8.822,3.7466,1,1,1
2.0103,8.8134,3.7481,1,1,1
2.011,8.8181,3.7472,1,1,1
2.0157,8.8148,3.7478,1,1,1
2.0211,8.7855,3.7535,1,1,1
2.0222,8.7891,3.7527,1,1,1
2.0275,8.7856,3.7534,1,1,1
2.0261,8.7921,3.7521,1,1,1
2.0232,8.7945,3.7516,1,1,1
2.0224,8.8017,3.7502,1,1,1
2.0291,8.7945,3.7516,1,1,1
2.0259,8.7935,3.7518,1,1,1
2.0273,8.8015,3.7503,1,1,1
2.0339,8.7853,3.7534,1,1,1
2.0368,8.787,3.7531,1,1,1
2.036,8.7905,3.7524,1,1,1
2.031,8.7968,3.7512,1,1,1
2.0315,8.7996,3.7506,1,1,1
2.0391,8.7966,3.7512,1,1,1
2.0352,8.7999,3.7506,1,1,1
2.0212,8.8057,3.7495,1,1,1
2.0259,8.8043,3.7498,1,1,1
2.0288,8.8119,3.7484,1,1,1
2.0226,8.8216,3.7467,1,1,1
2.0218,8.8149,3.7478,1,1,1
2.0212,8.8183,3.7472,1,1,1
2.0275,8.817,3.7475,1,1,1
2.0296,8.8181,3.7473,1,1,1
2.033,8.8046,3.7497,1,1,1
2.0343,8.811,3.7486,1,1,1
2.0374,8.8051,3.7496,1,1,1
2.0321,8.8156,3.7478,1,1,1
2.0323,8.8212,3.7468,1,1,1
2.0379,8.8169,3.7476,1,1,1
2.0019,8.8239,3.7461,1,1,1
2.0032,8.8307,3.7448,1,1,1
2.0064,8.8245,3.746,1,1,1
2.0081,8.8292,3.7452,1,1,1
2.0042,8.8331,3.7444,1,1,1
2.0015,8.8419,3.7427,1,1,1
2.0076,8.8398,3.7432,1,1,1
2.0141,8.8239,3.7462,1,1,1
2.0103,8.8323,3.7446,1,1,1
2.0175,8.826,3.7459,1,1,1
2.0174,8.8309,3.745,1,1,1
2.013,8.8354,3.7441,1,1,1
2.0157,8.8364,3.744,1,1,1
2.0171,8.84,3.7434,1,1,1
2.0015,8.8448,3.7421,1,1,1
2.0074,8.8446,3.7423,1,1,1
2.0095,8.8517,3.741,1,1,1
2.0022,8.8577,3.7397,1,1,1
2.0044,8.8611,3.7391,1,1,1
2.0061,8.8554,3.7402,1,1,1
2.0081,8.86,3.7394,1,1,1
2.0123,8.8507,3.7413,1,1,1
2.0182,8.8438,3.7427,1,1,1
2.0176,8.8504,3.7415,1,1,1
2.0115,8.8548,3.7405,1,1,1
2.0154,8.8573,3.7402,1,1,1
2.0163,8.8592,3.7398,1,1,1
2.0203,8.8246,3.7461,1,1,1
2.0283,8.8246,3.7462,1,1,1
2.0261,8.8298,3.7453,1,1,1
2.0237,8.8354,3.7443,1,1,1
2.0235,8.8388,3.7437,1,1,1
2.029,8.8348,3.7445,1,1,1
2.0276,8.8419,3.7432,1,1,1
2.0322,8.8233,3.7465,1,1,1
2.0319,8.8298,3.7454,1,1,1
2.0373,8.8307,3.7453,1,1,1
2.0335,8.8333,3.7448,1,1,1
2.0372,8.8353,3.7445,1,1,1
2.0384,8.8389,3.7439,1,1,1
2.0217,8.8455,3.7425,1,1,1
2.0223,8.8492,3.7418,1,1,1
2.0276,8.846,3.7425,1,1,1
2.0281,8.8514,3.7416,1,1,1
2.0297,8.8504,3.7418,1,1,1
2.0224,8.8547,3.7408,1,1,1
2.0241,8.8607,3.7398,1,1,1
2.0267,8.8542,3.741,1,1,1
2.0276,8.8598,3.74,1,1,1
2.0344,8.8519,3.7416,1,1,1
2.0325,8.8505,3.7418,1,1,1
2.0372,8.8447,3.7429,1,1,1
2.0374,8.8518,3.7417,1,1,1
2.033,8.8609,3.74,1,1,1
2.0356,8.8593,3.7403,1,1,1
2.0436,8.7858,3.7533,1,1,1
2.0422,8.7897,3.7525,1,1,1
2.0474,8.7865,3.7531,1,1,1
2.0475,8.7902,3.7524,1,1,1
2.0409,8.7972,3.7511,1,1,1
2.0433,8.8012,3.7503,1,1,1
2.0489,8.7975,3.751,1,1,1
2.0473,8.802,3.7502,1,1,1
2.0515,8.7853,3.7534,1,1,1
2.0542,8.7887,3.7528,1,1,1
2.0592,8.7855,3.7534,1,1,1
2.0575,8.7913,3.7523,1,1,1
2.0518,8.7993,3.7507,1,1,1
2.0586,8.7964,3.7513,1,1,1
2.0576,8.8011,3.7504,1,1,1
2.0433,8.8107,3.7486,1,1,1
2.0417,8.8225,3.7467,1,1,1
2.0491,8.8228,3.7467,1,1,1
2.0415,8.8149,3.7479,1,1,1
2.0443,8.8198,3.7471,1,1,1
2.0485,8.8151,3.7479,1,1,1
2.0485,8.8195,3.7472,1,1,1
2.0505,8.8043,3.7498,1,1,1
2.0537,8.8119,3.7485,1,1,1
2.0587,8.8062,3.7496,1,1,1
2.0573,8.8105,3.7488,1,1,1
2.0524,8.8156,3.7479,1,1,1
2.052,8.8201,3.7472,1,1,1
2.0584,8.8151,3.748,1,1,1
2.0568,8.822,3.7469,1,1,1
2.064,8.7927,3.7521,1,1,1
2.0675,8.7852,3.7536,1,1,1
2.0659,8.7884,3.753,1,1,1
2.0626,8.796,3.7514,1,1,1
2.0633,8.7934,3.7519,1,1,1
2.0624,8.801,3.7505,1,1,1
2.0673,8.7969,3.7513,1,1,1
2.068,8.7942,3.7519,1,1,1
2.0652,8.8029,3.7502,1,1,1
2.0736,8.7878,3.7533,1,1,1
2.0704,8.7887,3.753,1,1,1
2.0776,8.7852,3.7539,1,1,1
2.0793,8.7899,3.753,1,1,1
2.0714,8.7954,3.7517,1,1,1
2.0704,8.8027,3.7504,1,1,1
2.0772,8.7978,3.7514,1,1,1
2.0751,8.7932,3.7522,1,1,1
2.0769,8.8008,3.7509,1,1,1
2.063,8.8063,3.7496,1,1,1
2.0629,8.8105,3.7489,1,1,1
2.0675,8.8058,3.7497,1,1,1
2.0679,8.8106,3.7489,1,1,1
2.0626,8.8167,3.7478,1,1,1
2.0632,8.8204,3.7472,1,1,1
2.0667,8.8162,3.748,1,1,1
2.0674,8.8201,3.7474,1,1,1
2.0748,8.8046,3.7501,1,1,1
2.0741,8.8088,3.7494,1,1,1
2.0774,8.8095,3.7494,1,1,1
2.0742,8.8165,3.7481,1,1,1
2.0699,8.8191,3.7476,1,1,1
2.078,8.8167,3.7482,1,1,1
2.0764,8.8207,3.7475,1,1,1
2.0431,8.8246,3.7463,1,1,1
2.0412,8.8307,3.7453,1,1,1
2.0486,8.8261,3.7461,1,1,1
2.044,8.835,3.7446,1,1,1
2.0421,8.8399,3.7438,1,1,1
2.0472,8.8358,3.7445,1,1,1
2.0468,8.8427,3.7434,1,1,1
2.0523,8.826,3.7462,1,1,1
2.0526,8.8303,3.7455,1,1,1
2.0561,8.8295,3.7457,1,1,1
2.0517,8.8341,3.7449,1,1,1
2.059,8.8353,3.7448,1,1,1
2.0423,8.8455,3.7429,1,1,1
2.0415,8.8511,3.7419,1,1,1
2.049,8.8437,3.7433,1,1,1
2.0454,8.851,3.742,1,1,1
2.0404,8.8568,3.7409,1,1,1
2.0475,8.8557,3.7412,1,1,1
2.0484,8.86,3.7404,1,1,1
2.0517,8.8446,3.7432,1,1,1
2.0551,8.8436,3.7434,1,1,1
2.0589,8.85,3.7424,1,1,1
2.0532,8.8587,3.7407,1,1,1
2.0561,8.8541,3.7416,1,1,1
2.0565,8.8602,3.7405,1,1,1
2.0607,8.8256,3.7464,1,1,1
2.0687,8.825,3.7466,1,1,1
2.0667,8.8313,3.7456,1,1,1
2.0687,8.8239,3.7468,1,1,1
2.0628,8.8367,3.7446,1,1,1
2.06,8.8417,3.7438,1,1,1
2.0679,8.836,3.7448,1,1,1
2.0661,8.8418,3.7439,1,1,1
2.0701,8.8254,3.7466,1,1,1
2.0723,8.8312,3.7457,1,1,1
2.0765,8.8318,3.7457,1,1,1
2.0794,8.8245,3.747,1,1,1
2.0744,8.8337,3.7454,1,1,1
2.0725,8.8409,3.7441,1,1,1
2.0768,8.8358,3.7451,1,1,1
2.0789,8.8422,3.7441,1,1,1
2.0611,8.8508,3.7423,1,1,1
2.0668,8.8472,3.743,1,1,1
2.0676,8.8495,3.7426,1,1,1
2.0633,8.8545,3.7417,1,1,1
2.0617,8.8533,3.7418,1,1,1
2.0611,8.8589,3.7408,1,1,1
2.0651,8.8559,3.7414,1,1,1
2.0662,8.8608,3.7406,1,1,1
2.0726,8.8467,3.7432,1,1,1
2.0718,8.849,3.7428,1,1,1
2.077,8.8454,3.7435,1,1,1
2.0775,8.8493,3.7428,1,1,1
2.0715,8.8569,3.7414,1,1,1
2.0721,8.8623,3.7404,1,1,1
2.0776,8.8563,3.7416,1,1,1
2.0782,8.8549,3.7419,1,1,1
2.0791,8.8614,3.7407,1,1,1
1.7621,8.8692,3.7339,1,1,1
1.7671,8.867,3.7344,1,1,1
1.7677,8.87,3.7339,1,1,1
1.7651,8.876,3.7328,1,1,1
1.7677,8.8808,3.732,1,1,1
1.7727,8.8652,3.7348,1,1,1
1.7706,8.871,3.7338,1,1,1
1.7782,8.8711,3.7339,1,1,1
1.7722,8.8802,3.7322,1,1,1
1.777,8.8755,3.7331,1,1,1
1.7636,8.8899,3.7303,1,1,1
1.7676,8.8837,3.7315,1,1,1
1.7626,8.8958,3.7292,1,1,1
1.7635,8.9004,3.7284,1,1,1
1.7674,8.8939,3.7296,1,1,1
1.7682,8.901,3.7284,1,1,1
1.772,8.8905,3.7303,1,1,1
1.7782,8.8858,3.7313,1,1,1
1.7734,8.8942,3.7297,1,1,1
1.7706,8.9003,3.7285,1,1,1
1.779,8.8937,3.7299,1,1,1
1.7788,8.9,3.7287,1,1,1
1.7842,8.8662,3.7349,1,1,1
1.7816,8.8699,3.7342,1,1,1
1.7876,8.8695,3.7344,1,1,1
1.7846,8.8766,3.7331,1,1,1
1.7828,8.8799,3.7325,1,1,1
1.7868,8.8805,3.7324,1,1,1
1.7927,8.8674,3.7349,1,1,1
1.7939,8.8707,3.7344,1,1,1
1.7995,8.864,3.7357,1,1,1
1.7993,8.8724,3.7342,1,1,1
1.7946,8.8792,3.7328,1,1,1
1.7986,8.8771,3.7333,1,1,1
1.7817,8.8859,3.7313,1,1,1
1.787,8.8874,3.7312,1,1,1
1.7896,8.8903,3.7306,1,1,1
1.7816,8.8955,3.7296,1,1,1
1.7879,8.8951,3.7297,1,1,1
1.789,8.9007,3.7287,1,1,1
1.7937,8.8848,3.7317,1,1,1
1.7993,8.8875,3.7313,1,1,1
1.7986,8.8849,3.7318,1,1,1
1.7974,8.8904,3.7307,1,1,1
1.7903,8.8975,3.7293,1,1,1
1.7935,8.9021,3.7284,1,1,1
1.7966,8.8995,3.7289,1,1,1
1.76,8.9116,3.7263,1,1,1
1.762,8.9059,3.7274,1,1,1
1.7674,8.9071,3.7273,1,1,1
1.7623,8.9163,3.7256,1,1,1
1.7672,8.9156,3.7258,1,1,1
1.7691,8.9207,3.725,1,1,1
1.7762,8.9113,3.7266,1,1,1
1.7734,8.9054,3.7276,1,1,1
1.777,8.9058,3.7276,1,1,1
1.7785,8.9088,3.7271,1,1,1
1.7725,8.9162,3.7258,1,1,1
1.7763,8.921,3.725,1,1,1
1.7643,8.9264,3.724,1,1,1
1.7603,8.9289,3.7236,1,1,1
1.7669,8.9239,3.7245,1,1,1
1.7614,8.9343,3.7229,1,1,1
1.7633,8.9397,3.7223,1,1,1
1.765,8.9339,3.723,1,1,1
1.7662,8.9409,3.7221,1,1,1
1.778,8.9256,3.7243,1,1,1
1.7769,8.9303,3.7236,1,1,1
1.7703,8.9364,3.7228,1,1,1
1.7722,8.9415,3.7221,1,1,1
1.7774,8.9333,3.7232,1,1,1
1.7792,8.9413,3.7222,1,1,1
1.786,8.9126,3.7265,1,1,1
1.7838,8.9062,3.7276,1,1,1
1.7866,8.9102,3.7269,1,1,1
1.784,8.9137,3.7263,1,1,1
1.7812,8.9207,3.7251,1,1,1
1.7877,8.9152,3.726,1,1,1
1.7852,8.9214,3.725,1,1,1
1.7952,8.9115,3.7267,1,1,1
1.7927,8.9045,3.728,1,1,1
1.7991,8.9059,3.7277,1,1,1
1.7928,8.9137,3.7263,1,1,1
1.7912,8.9203,3.7252,1,1,1
1.7984,8.9168,3.7258,1,1,1
1.7979,8.9223,3.7249,1,1,1
1.7834,8.9272,3.7241,1,1,1
1.7801,8.9285,3.7239,1,1,1
1.788,8.9264,3.7243,1,1,1
1.7881,8.9286,3.7239,1,1,1
1.7826,8.9357,3.723,1,1,1
1.7806,8.94,3.7224,1,1,1
1.7873,8.9392,3.7225,1,1,1
1.7983,8.9275,3.7241,1,1,1
1.7991,8.928,3.724,1,1,1
1.793,8.9353,3.723,1,1,1
1.7987,8.9386,3.7226,1,1,1
1.8023,8.8657,3.7354,1,1,1
1.8019,8.8703,3.7346,1,1,1
1.8047,8.8823,3.7324,1,1,1
1.8076,8.8743,3.7339,1,1,1
1.8095,8.8798,3.7329,1,1,1
1.8102,8.8638,3.7359,1,1,1
1.8128,8.8695,3.7349,1,1,1
1.8169,8.8664,3.7356,1,1,1
1.8196,8.8693,3.735,1,1,1
1.8107,8.8801,3.7328,1,1,1
1.8157,8.8756,3.7338,1,1,1
1.8176,8.8814,3.7326,1,1,1
1.8019,8.8865,3.7315,1,1,1
1.7999,8.8917,3.7305,1,1,1
1.8091,8.884,3.732,1,1,1
1.8067,8.8891,3.731,1,1,1
1.8029,8.8933,3.7302,1,1,1
1.8051,8.8972,3.7294,1,1,1
1.8095,8.9005,3.7288,1,1,1
1.814,8.8889,3.7311,1,1,1
1.8161,8.889,3.7311,1,1,1
1.8103,8.8968,3.7295,1,1,1
1.8123,8.9005,3.7288,1,1,1
1.8154,8.8951,3.7298,1,1,1
1.8161,8.8985,3.7291,1,1,1
1.8213,8.8651,3.7359,1,1,1
1.8209,8.8717,3.7346,1,1,1
1.8272,8.8673,3.7355,1,1,1
1.8277,8.8708,3.7348,1,1,1
1.8228,8.8749,3.7339,1,1,1
1.8219,8.88,3.7329,1,1,1
1.8254,8.8806,3.7328,1,1,1
1.832,8.8698,3.735,1,1,1
1.8368,8.8659,3.7358,1,1,1
1.8326,8.8752,3.7339,1,1,1
1.8312,8.88,3.7329,1,1,1
1.8369,8.8801,3.7329,1,1,1
1.821,8.8836,3.7322,1,1,1
1.8279,8.8868,3.7315,1,1,1
1.8272,8.8855,3.7318,1,1,1
1.8276,8.8927,3.7303,1,1,1
1.8216,8.8971,3.7294,1,1,1
1.8222,8.9023,3.7284,1,1,1
1.8291,8.9009,3.7286,1,1,1
1.8338,8.8867,3.7315,1,1,1
1.8314,8.8906,3.7307,1,1,1
1.8372,8.8854,3.7318,1,1,1
1.8303,8.9028,3.7282,1,1,1
1.8369,8.8959,3.7295,1,1,1
1.8378,8.9004,3.7286,1,1,1
1.8026,8.9031,3.7283,1,1,1
1.8033,8.9087,3.7272,1,1,1
1.8065,8.9038,3.7281,1,1,1
1.8013,8.9143,3.7262,1,1,1
1.8016,8.9215,3.725,1,1,1
1.8098,8.9205,3.7251,1,1,1
1.8189,8.9112,3.7267,1,1,1
1.8174,8.9073,3.7274,1,1,1
1.8102,8.9147,3.7261,1,1,1
1.8124,8.9222,3.7248,1,1,1
1.8175,8.9206,3.725,1,1,1
1.8043,8.9277,3.724,1,1,1
1.8023,8.9312,3.7235,1,1,1
1.8049,8.9267,3.7242,1,1,1
1.8001,8.942,3.7221,1,1,1
1.8072,8.9347,3.723,1,1,1
1.8093,8.9399,3.7223,1,1,1
1.8119,8.9261,3.7242,1,1,1
1.8128,8.9361,3.7227,1,1,1
1.8133,8.9385,3.7224,1,1,1
1.8168,8.9354,3.7228,1,1,1
1.8182,8.9392,3.7223,1,1,1
1.821,8.9115,3.7266,1,1,1
1.8204,8.9068,3.7275,1,1,1
1.8257,8.9034,3.7281,1,1,1
1.8285,8.9081,3.7272,1,1,1
1.824,8.9151,3.7259,1,1,1
1.8236,8.9188,3.7253,1,1,1
1.8288,8.9196,3.725,1,1,1
1.8359,8.9125,3.7263,1,1,1
1.8307,8.9063,3.7275,1,1,1
1.8339,8.9094,3.7269,1,1,1
1.8327,8.9154,3.7258,1,1,1
1.8322,8.9215,3.7247,1,1,1
2.1522,8.3562,4.0699,1,1,1
2.1523,8.3597,4.07,1,1,1
2.1591,8.3553,4.0698,1,1,1
2.1585,8.3609,4.0699,1,1,1
2.1416,8.3649,4.0704,1,1,1
2.1443,8.371,4.0705,1,1,1
2.1497,8.3663,4.0703,1,1,1
2.1463,8.3715,4.0705,1,1,1
2.1423,8.3754,4.0707,1,1,1
2.1428,8.38,4.0707,1,1,1
2.146,8.3751,4.0706,1,1,1
2.1461,8.3794,4.0707,1,1,1
2.1537,8.3677,4.0702,1,1,1
2.1526,8.3722,4.0704,1,1,1
2.1575,8.3659,4.0701,1,1,1
2.1591,8.3706,4.0701,1,1,1
2.1512,8.3755,4.0705,1,1,1
2.1541,8.3805,4.0705,1,1,1
2.1583,8.3768,4.0703,1,1,1
2.1569,8.3795,4.0704,1,1,1
2.1623,8.2247,4.0694,1,1,1
2.161,8.2326,4.0696,1,1,1
2.1671,8.225,4.0693,1,1,1
2.1605,8.2356,4.0697,1,1,1
2.1622,8.2401,4.0698,1,1,1
2.1656,8.2357,4.0696,1,1,1
2.1687,8.2406,4.0696,1,1,1
2.1729,8.2261,4.0693,1,1,1
2.1774,8.2267,4.0692,1,1,1
2.1783,8.2313,4.0693,1,1,1
2.1713,8.2331,4.0695,1,1,1
2.1722,8.2386,4.0695,1,1,1
2.1768,8.2356,4.0694,1,1,1
2.1776,8.2395,4.0694,1,1,1
2.1623,8.244,4.0698,1,1,1
2.1636,8.2513,4.0698,1,1,1
2.168,8.2443,4.0697,1,1,1
2.166,8.2484,4.0698,1,1,1
2.1633,8.2546,4.0698,1,1,1
2.1625,8.2615,4.0698,1,1,1
2.1675,8.2542,4.0697,1,1,1
2.1691,8.2593,4.0697,1,1,1
2.1731,8.2463,4.0696,1,1,1
2.1737,8.2497,4.0696,1,1,1
2.1782,8.2469,4.0695,1,1,1
2.1773,8.2521,4.0695,1,1,1
2.1795,8.2547,4.0695,1,1,1
2.1772,8.2606,4.0695,1,1,1
2.1816,8.2242,4.0691,1,1,1
2.1812,8.2293,4.0692,1,1,1
2.1859,8.2272,4.0691,1,1,1
2.1868,8.231,4.0691,1,1,1
2.1823,8.2356,4.0693,1,1,1
2.1868,8.2355,4.0692,1,1,1
2.1852,8.2411,4.0693,1,1,1
2.1914,8.2248,4.0689,1,1,1
2.1957,8.2309,4.069,1,1,1
2.1923,8.2331,4.0691,1,1,1
2.1903,8.2421,4.0692,1,1,1
2.1968,8.2348,4.069,1,1,1
2.1967,8.2399,4.069,1,1,1
2.1826,8.2455,4.0694,1,1,1
2.1828,8.2507,4.0694,1,1,1
2.1894,8.2444,4.0692,1,1,1
2.1886,8.2487,4.0693,1,1,1
2.1848,8.2578,4.0693,1,1,1
2.1833,8.2591,4.0694,1,1,1
2.1863,8.2545,4.0693,1,1,1
2.1869,8.2598,4.0693,1,1,1
2.1921,8.2471,4.0692,1,1,1
2.1936,8.2494,4.0692,1,1,1
2.1985,8.2467,4.0691,1,1,1
2.1974,8.2522,4.0691,1,1,1
2.1923,8.254,4.0692,1,1,1
2.1964,8.2561,4.0691,1,1,1
2.1968,8.2606,4.0691,1,1,1
2.1631,8.2704,4.0697,1,1,1
2.1676,8.2644,4.0697,1,1,1
2.1675,8.2695,4.0696,1,1,1
2.1623,8.2765,4.0696,1,1,1
2.1602,8.2802,4.0696,1,1,1
2.1675,8.2752,4.0695,1,1,1
2.1679,8.2803,4.0695,1,1,1
2.1714,8.2651,4.0696,1,1,1
2.1732,8.2725,4.0695,1,1,1
2.1794,8.2635,4.0694,1,1,1
2.1777,8.2729,4.0694,1,1,1
2.1715,8.2753,4.0695,1,1,1
2.1734,8.2811,4.0694,1,1,1
2.1777,8.2748,4.0694,1,1,1
2.1779,8.2815,4.0693,1,1,1
2.1614,8.2859,4.0694,1,1,1
2.1626,8.2908,4.0693,1,1,1
2.1659,8.2852,4.0694,1,1,1
2.167,8.2907,4.0693,1,1,1
2.1645,8.2966,4.0692,1,1,1
2.1602,8.3006,4.0692,1,1,1
2.1654,8.2933,4.0693,1,1,1
2.1689,8.2999,4.0692,1,1,1
2.1721,8.2867,4.0693,1,1,1
2.1725,8.2902,4.0692,1,1,1
2.1764,8.285,4.0693,1,1,1
2.1752,8.29,4.0692,1,1,1
2.1718,8.2952,4.0692,1,1,1
2.1702,8.3025,4.0691,1,1,1
2.1787,8.2938,4.0691,1,1,1
2.1777,8.3008,4.0691,1,1,1
2.182,8.2661,4.0694,1,1,1
2.1824,8.2715,4.0693,1,1,1
2.1876,8.2665,4.0693,1,1,1
2.1893,8.2689,4.0692,1,1,1
2.1808,8.2748,4.0693,1,1,1
2.183,8.2814,4.0692,1,1,1
2.1877,8.2767,4.0692,1,1,1
2.1921,8.2631,4.0692,1,1,1
2.1925,8.2709,4.0691,1,1,1
2.1972,8.2654,4.0691,1,1,1
2.197,8.2699,4.0691,1,1,1
2.1919,8.2762,4.0691,1,1,1
2.1921,8.2797,4.0691,1,1,1
2.1961,8.2762,4.0691,1,1,1
2.1963,8.2794,4.069,1,1,1
2.183,8.2853,4.0692,1,1,1
2.1823,8.2915,4.0691,1,1,1
2.1864,8.2869,4.0691,1,1,1
2.1873,8.2909,4.0691,1,1,1
2.1831,8.296,4.0691,1,1,1
2.1817,8.2991,4.069,1,1,1
2.1881,8.2941,4.069,1,1,1
2.1881,8.3015,4.069,1,1,1
2.191,8.2863,4.0691,1,1,1
2.19,8.2917,4.069,1,1,1
2.1965,8.2861,4.069,1,1,1
2.197,8.2925,4.069,1,1,1
2.1924,8.2958,4.069,1,1,1
2.193,8.2982,4.069,1,1,1
2.1971,8.3029,4.0689,1,1,1
2.203,8.2254,4.0688,1,1,1
2.2029,8.2312,4.0689,1,1,1
2.2056,8.2244,4.0688,1,1,1
2.208,8.2305,4.0688,1,1,1
2.2027,8.2346,4.0689,1,1,1
2.2023,8.2412,4.069,1,1,1
2.2086,8.2356,4.0689,1,1,1
2.2071,8.2408,4.0689,1,1,1
2.2127,8.2257,4.0688,1,1,1
2.2102,8.2318,4.0688,1,1,1
2.2177,8.2263,4.0688,1,1,1
2.2166,8.2309,4.0688,1,1,1
2.2119,8.237,4.0688,1,1,1
2.2128,8.2396,4.0689,1,1,1
2.2176,8.2351,4.0688,1,1,1
2.2178,8.2417,4.0688,1,1,1
2.202,8.245,4.069,1,1,1
2.2032,8.2499,4.069,1,1,1
2.2071,8.2519,4.0689,1,1,1
2.2011,8.258,4.069,1,1,1
2.2075,8.2559,4.0689,1,1,1
2.2056,8.2581,4.069,1,1,1
2.2103,8.2457,4.0689,1,1,1
2.2176,8.2477,4.0689,1,1,1
2.2175,8.2502,4.0689,1,1,1
2.2126,8.2559,4.0689,1,1,1
2.2131,8.261,4.0689,1,1,1
2.2151,8.2542,4.0689,1,1,1
2.217,8.2589,4.0689,1,1,1
2.222,8.225,4.0688,1,1,1
2.2221,8.2304,4.0688,1,1,1
2.2272,8.2245,4.0688,1,1,1
2.2274,8.2298,4.0688,1,1,1
2.2228,8.2377,4.0688,1,1,1
2.224,8.2413,4.0688,1,1,1
2.2268,8.2395,4.0688,1,1,1
2.2323,8.2256,4.0689,1,1,1
2.2364,8.2253,4.0689,1,1,1
2.2382,8.23,4.0689,1,1,1
2.2325,8.2361,4.0689,1,1,1
2.2331,8.2405,4.0689,1,1,1
2.2375,8.2369,4.0689,1,1,1
2.2349,8.2403,4.0689,1,1,1
2.2218,8.2517,4.0689,1,1,1
2.2262,8.2458,4.0689,1,1,1
2.2294,8.2512,4.0689,1,1,1
2.2226,8.2601,4.0689,1,1,1
2.2277,8.2558,4.0689,1,1,1
2.2262,8.2598,4.0689,1,1,1
2.2325,8.245,4.0689,1,1,1
2.2343,8.2509,4.0689,1,1,1
2.2362,8.2457,4.0689,1,1,1
2.2361,8.2501,4.0689,1,1,1
2.2317,8.2549,4.0689,1,1,1
2.2315,8.2603,4.0689,1,1,1
2.2367,8.2563,4.0689,1,1,1
2.2375,8.2607,4.0689,1,1,1
2.2016,8.2667,4.069,1,1,1
2.2013,8.27,4.069,1,1,1
2.208,8.2654,4.0689,1,1,1
2.2015,8.2753,4.069,1,1,1
2.2076,8.2737,4.0689,1,1,1
2.2079,8.2793,4.0689,1,1,1
2.2107,8.2671,4.0689,1,1,1
2.2127,8.2712,4.0689,1,1,1
2.2165,8.2653,4.0689,1,1,1
2.2134,8.2755,4.0689,1,1,1
2.2161,8.276,4.0689,1,1,1
2.215,8.2798,4.0689,1,1,1
2.203,8.2846,4.0689,1,1,1
2.2013,8.2915,4.0689,1,1,1
2.2084,8.2848,4.0689,1,1,1
2.2067,8.2897,4.0689,1,1,1
2.2041,8.2956,4.0689,1,1,1
2.2005,8.2996,4.0689,1,1,1
2.2076,8.295,4.0689,1,1,1
2.2064,8.3011,4.0689,1,1,1
2.2128,8.2913,4.0689,1,1,1
2.2168,8.2904,4.0689,1,1,1
2.2124,8.297,4.0689,1,1,1
2.2109,8.2997,4.0689,1,1,1
2.2178,8.296,4.0689,1,1,1
2.2213,8.2706,4.0689,1,1,1
2.2274,8.2654,4.0689,1,1,1
2.2283,8.2697,4.0689,1,1,1
2.2212,8.2757,4.0689,1,1,1
2.2216,8.2806,4.0689,1,1,1
2.2284,8.2743,4.0689,1,1,1
2.2254,8.2792,4.0689,1,1,1
2.2322,8.2708,4.0689,1,1,1
2.237,8.2641,4.0689,1,1,1
2.2381,8.2692,4.069,1,1,1
2.2322,8.2732,4.0689,1,1,1
2.2304,8.281,4.0689,1,1,1
2.2372,8.2756,4.069,1,1,1
2.2223,8.2858,4.0689,1,1,1
2.2203,8.2902,4.0689,1,1,1
2.2259,8.287,4.0689,1,1,1
2.2281,8.2896,4.0689,1,1,1
2.2215,8.2949,4.0689,1,1,1
2.2228,8.2994,4.0689,1,1,1
2.2272,8.2958,4.0689,1,1,1
2.2287,8.301,4.0689,1,1,1
2.2341,8.2854,4.0689,1,1,1
2.2324,8.2899,4.0689,1,1,1
2.2369,8.2903,4.069,1,1,1
2.2392,8.2956,4.069,1,1,1
2.2397,8.2992,4.069,1,1,1
2.1619,8.3064,4.0691,1,1,1
2.1621,8.3097,4.0691,1,1,1
2.1696,8.3047,4.0691,1,1,1
2.1665,8.3109,4.0691,1,1,1
2.1621,8.3173,4.0691,1,1,1
2.1621,8.3194,4.0691,1,1,1
2.1666,8.3161,4.0691,1,1,1
2.1677,8.3221,4.0691,1,1,1
2.1713,8.3054,4.0691,1,1,1
2.1765,8.305,4.069,1,1,1
2.1764,8.3106,4.069,1,1,1
2.1731,8.3202,4.069,1,1,1
2.1787,8.3156,4.069,1,1,1
2.1786,8.32,4.0689,1,1,1
2.1619,8.3264,4.0691,1,1,1
2.1616,8.3308,4.0692,1,1,1
2.1678,8.3249,4.0691,1,1,1
2.1662,8.3299,4.0691,1,1,1
2.1607,8.3343,4.0693,1,1,1
2.1627,8.3413,4.0693,1,1,1
2.1648,8.3344,4.0692,1,1,1
2.1667,8.3406,4.0693,1,1,1
2.1725,8.3258,4.069,1,1,1
2.1736,8.3314,4.069,1,1,1
2.1782,8.325,4.069,1,1,1
2.1762,8.3307,4.069,1,1,1
2.1733,8.3354,4.0691,1,1,1
2.1745,8.3402,4.0691,1,1,1
2.1764,8.3348,4.069,1,1,1
2.1755,8.3401,4.0691,1,1,1
2.1841,8.3056,4.069,1,1,1
2.1813,8.3108,4.069,1,1,1
2.1858,8.306,4.069,1,1,1
2.1883,8.3107,4.0689,1,1,1
2.1838,8.3178,4.0689,1,1,1
2.1832,8.3214,4.0689,1,1,1
2.1869,8.3155,4.0689,1,1,1
2.1869,8.3216,4.0689,1,1,1
2.1915,8.3058,4.0689,1,1,1
2.1929,8.312,4.0689,1,1,1
2.1975,8.3042,4.0689,1,1,1
2.1963,8.3127,4.0689,1,1,1
2.1924,8.3206,4.0689,1,1,1
2.1981,8.3209,4.0689,1,1,1
2.1836,8.326,4.0689,1,1,1
2.1802,8.3304,4.069,1,1,1
2.1881,8.3255,4.0689,1,1,1
2.1863,8.3323,4.0689,1,1,1
2.1819,8.3399,4.069,1,1,1
2.1872,8.3334,4.0689,1,1,1
2.1923,8.3261,4.0689,1,1,1
2.1914,8.3299,4.0689,1,1,1
2.1975,8.3269,4.0689,1,1,1
2.1964,8.3298,4.0689,1,1,1
2.1916,8.3367,4.0689,1,1,1
2.1936,8.3398,4.0689,1,1,1
2.1953,8.3337,4.0689,1,1,1
2.1968,8.3407,4.0689,1,1,1
2.1644,8.3468,4.0694,1,1,1
2.1626,8.3484,4.0695,1,1,1
2.1667,8.3444,4.0693,1,1,1
2.1678,8.3519,4.0695,1,1,1
2.162,8.3554,4.0697,1,1,1
2.1626,8.3595,4.0698,1,1,1
2.1672,8.3565,4.0696,1,1,1
2.1681,8.3606,4.0697,1,1,1
2.1732,8.3444,4.0692,1,1,1
2.1728,8.3515,4.0694,1,1,1
2.1777,8.3443,4.0691,1,1,1
2.1778,8.3514,4.0693,1,1,1
2.1726,8.3545,4.0694,1,1,1
2.1722,8.3593,4.0695,1,1,1
2.1773,8.3544,4.0693,1,1,1
2.1769,8.3591,4.0694,1,1,1
2.1615,8.3651,4.0699,1,1,1
2.1617,8.3709,4.0701,1,1,1
2.1657,8.3678,4.0699,1,1,1
2.1652,8.3711,4.07,1,1,1
2.1628,8.3763,4.0701,1,1,1
2.1626,8.3792,4.0702,1,1,1
2.1676,8.3769,4.07,1,1,1
2.1677,8.3811,4.07,1,1,1
2.1723,8.366,4.0697,1,1,1
2.1728,8.3698,4.0697,1,1,1
2.1798,8.3671,4.0695,1,1,1
2.1771,8.3701,4.0696,1,1,1
2.1716,8.3763,4.0699,1,1,1
2.1722,8.3792,4.0699,1,1,1
2.177,8.3751,4.0697,1,1,1
2.1777,8.3817,4.0697,1,1,1
2.1818,8.3439,4.0691,1,1,1
2.185,8.3448,4.0691,1,1,1
2.187,8.3508,4.0691,1,1,1
2.1841,8.3574,4.0693,1,1,1
2.1826,8.3615,4.0694,1,1,1
2.187,8.3556,4.0692,1,1,1
2.1889,8.3628,4.0693,1,1,1
2.1917,8.3434,4.069,1,1,1
2.1977,8.3457,4.069,1,1,1
2.1993,8.3509,4.069,1,1,1
2.1929,8.3534,4.0691,1,1,1
2.1913,8.3599,4.0692,1,1,1
2.1975,8.361,4.0692,1,1,1
2.184,8.3668,4.0694,1,1,1
2.1877,8.3675,4.0694,1,1,1
2.1812,8.3767,4.0696,1,1,1
2.1825,8.3806,4.0696,1,1,1
2.193,8.3637,4.0692,1,1,1
2.1928,8.3719,4.0693,1,1,1
2.198,8.3658,4.0692,1,1,1
2.1958,8.3707,4.0693,1,1,1
2.1907,8.3758,4.0694,1,1,1
2.1923,8.3794,4.0694,1,1,1
2.1967,8.3764,4.0693,1,1,1
2.1975,8.3788,4.0693,1,1,1
2.2017,8.3053,4.0689,1,1,1
2.2006,8.3106,4.0689,1,1,1
2.2072,8.3103,4.0689,1,1,1
2.2047,8.3163,4.0689,1,1,1
2.2027,8.3211,4.0689,1,1,1
2.2089,8.3147,4.0689,1,1,1
2.2062,8.3197,4.0689,1,1,1
2.2136,8.309,4.0689,1,1,1
2.2166,8.3054,4.0689,1,1,1
2.2156,8.3109,4.0689,1,1,1
2.2126,8.3136,4.0689,1,1,1
2.2134,8.3225,4.0689,1,1,1
2.2177,8.3163,4.0689,1,1,1
2.2177,8.3203,4.0689,1,1,1
2.202,8.3309,4.0689,1,1,1
2.2086,8.326,4.0689,1,1,1
2.203,8.3343,4.0689,1,1,1
2.2039,8.34,4.0689,1,1,1
2.206,8.3344,4.0689,1,1,1
2.2066,8.3399,4.069,1,1,1
2.2139,8.326,4.0689,1,1,1
2.2121,8.3311,4.0689,1,1,1
2.218,8.3265,4.069,1,1,1
2.2189,8.329,4.069,1,1,1
2.2126,8.3342,4.069,1,1,1
2.2161,8.3356,4.069,1,1,1
2.2175,8.3397,4.069,1,1,1
2.2225,8.306,4.0689,1,1,1
2.2267,8.306,4.0689,1,1,1
2.227,8.3125,4.069,1,1,1
2.223,8.3166,4.069,1,1,1
2.2234,8.3207,4.069,1,1,1
2.2267,8.3173,4.069,1,1,1
2.2291,8.3181,4.069,1,1,1
2.2314,8.305,4.069,1,1,1
2.2326,8.3119,4.069,1,1,1
2.2357,8.3061,4.069,1,1,1
2.2361,8.3108,4.069,1,1,1
2.2328,8.3161,4.069,1,1,1
2.2336,8.3191,4.069,1,1,1
2.2366,8.3155,4.069,1,1,1
2.2376,8.3201,4.0691,1,1,1
2.2226,8.3261,4.069,1,1,1
2.2229,8.3301,4.069,1,1,1
2.2285,8.3262,4.0691,1,1,1
2.2295,8.3288,4.0691,1,1,1
2.2245,8.3335,4.0691,1,1,1
2.2205,8.3383,4.0691,1,1,1
2.2273,8.3353,4.0691,1,1,1
2.2264,8.3414,4.0692,1,1,1
2.2313,8.3253,4.0691,1,1,1
2.2337,8.3307,4.0691,1,1,1
2.2367,8.3327,4.0692,1,1,1
2.2342,8.3353,4.0692,1,1,1
2.2306,8.3414,4.0692,1,1,1
2.2368,8.3371,4.0692,1,1,1
2.2377,8.3423,4.0693,1,1,1
2.2023,8.3526,4.0691,1,1,1
2.2077,8.3431,4.069,1,1,1
2.2012,8.3556,4.0691,1,1,1
2.2021,8.3595,4.0691,1,1,1
2.2077,8.3538,4.0691,1,1,1
2.2084,8.3605,4.0692,1,1,1
2.2119,8.3463,4.069,1,1,1
2.2168,8.3449,4.0691,1,1,1
2.2187,8.3529,4.0692,1,1,1
2.2148,8.3537,4.0691,1,1,1
2.2104,8.3599,4.0692,1,1,1
2.2177,8.3563,4.0692,1,1,1
2.2189,8.3601,4.0693,1,1,1
2.2018,8.3639,4.0692,1,1,1
2.2007,8.3691,4.0692,1,1,1
2.2077,8.3663,4.0692,1,1,1
2.2031,8.3769,4.0693,1,1,1
2.2018,8.3797,4.0693,1,1,1
2.206,8.3742,4.0693,1,1,1
2.2076,8.3782,4.0693,1,1,1
2.2132,8.3644,4.0692,1,1,1
2.2129,8.3691,4.0693,1,1,1
2.2187,8.3655,4.0693,1,1,1
2.216,8.3718,4.0693,1,1,1
2.2109,8.376,4.0693,1,1,1
2.2116,8.3796,4.0693,1,1,1
2.218,8.3762,4.0694,1,1,1
2.2173,8.3813,4.0694,1,1,1
2.2218,8.3447,4.0691,1,1,1
2.2221,8.3505,4.0692,1,1,1
2.2267,8.3453,4.0692,1,1,1
2.2215,8.3592,4.0693,1,1,1
2.227,8.3547,4.0693,1,1,1
2.2286,8.3594,4.0694,1,1,1
2.2324,8.3466,4.0693,1,1,1
2.2317,8.3518,4.0693,1,1,1
2.2367,8.3449,4.0693,1,1,1
2.2387,8.3487,4.0694,1,1,1
2.2314,8.3559,4.0694,1,1,1
2.2324,8.3586,4.0694,1,1,1
2.236,8.3543,4.0694,1,1,1
2.2381,8.3595,4.0695,1,1,1
2.2234,8.3663,4.0694,1,1,1
2.2236,8.3717,4.0695,1,1,1
2.2269,8.3707,4.0695,1,1,1
2.222,8.3759,4.0695,1,1,1
2.222,8.3806,4.0695,1,1,1
2.2284,8.3751,4.0696,1,1,1
2.2271,8.3781,4.0696,1,1,1
2.232,8.3647,4.0695,1,1,1
2.2315,8.3688,4.0696,1,1,1
2.238,8.3706,4.0697,1,1,1
2.2333,8.376,4.0697,1,1,1
2.2324,8.3794,4.0697,1,1,1
2.2394,8.3766,4.0698,1,1,1
2.0824,8.3846,4.0694,1,1,1
2.082,8.3889,4.0696,1,1,1
2.0876,8.3858,4.0697,1,1,1
2.085,8.3914,4.0698,1,1,1
2.0817,8.3973,4.0699,1,1,1
2.0842,8.3997,4.07,1,1,1
2.0861,8.3971,4.07,1,1,1
2.0884,8.3993,4.0702,1,1,1
2.0907,8.3845,4.0698,1,1,1
2.0929,8.3904,4.0701,1,1,1
2.0981,8.3847,4.0701,1,1,1
2.0926,8.3957,4.0702,1,1,1
2.0945,8.4004,4.0704,1,1,1
2.097,8.3954,4.0704,1,1,1
2.0974,8.3996,4.0705,1,1,1
2.0819,8.4074,4.0702,1,1,1
2.0819,8.4106,4.0703,1,1,1
2.0876,8.404,4.0703,1,1,1
2.0885,8.41,4.0704,1,1,1
2.084,8.4145,4.0704,1,1,1
2.0856,8.4174,4.0705,1,1,1
2.0892,8.4197,4.0707,1,1,1
2.0912,8.4058,4.0704,1,1,1
2.0979,8.4042,4.0706,1,1,1
2.0933,8.4148,4.0707,1,1,1
2.0952,8.4164,4.0707,1,1,1
2.0968,8.4209,4.0708,1,1,1
2.1035,8.3852,4.0704,1,1,1
2.1029,8.3916,4.0705,1,1,1
2.1068,8.3869,4.0705,1,1,1
2.1066,8.3904,4.0706,1,1,1
2.1031,8.3978,4.0707,1,1,1
2.1091,8.3963,4.0708,1,1,1
2.108,8.4009,4.0709,1,1,1
2.1117,8.3846,4.0707,1,1,1
2.1129,8.3913,4.0708,1,1,1
2.1176,8.3856,4.0708,1,1,1
2.1176,8.3906,4.0709,1,1,1
2.1121,8.3957,4.0709,1,1,1
2.1144,8.4017,4.071,1,1,1
2.1185,8.4018,4.0711,1,1,1
2.1006,8.4077,4.0707,1,1,1
2.1014,8.4112,4.0708,1,1,1
2.1062,8.4056,4.0709,1,1,1
2.1075,8.4108,4.0709,1,1,1
2.1042,8.4139,4.0709,1,1,1
2.1023,8.4204,4.0709,1,1,1
2.1067,8.4174,4.0709,1,1,1
2.1062,8.4224,4.0709,1,1,1
2.1131,8.4052,4.071,1,1,1
2.1171,8.405,4.0711,1,1,1
2.1159,8.4103,4.0711,1,1,1
2.1145,8.4155,4.071,1,1,1
2.1108,8.4222,4.071,1,1,1
2.1167,8.4152,4.071,1,1,1
2.1181,8.418,4.071,1,1,1
2.0804,8.4279,4.0707,1,1,1
2.0824,8.4323,4.0708,1,1,1
2.0868,8.425,4.0707,1,1,1
2.0867,8.4319,4.0708,1,1,1
2.0809,8.4356,4.0709,1,1,1
2.0827,8.4399,4.071,1,1,1
2.089,8.435,4.0709,1,1,1
2.085,8.4402,4.071,1,1,1
2.0925,8.4251,4.0708,1,1,1
2.0913,8.4324,4.0709,1,1,1
2.0972,8.4249,4.0709,1,1,1
2.0926,8.4406,4.071,1,1,1
2.0963,8.4371,4.0709,1,1,1
2.0977,8.4408,4.071,1,1,1
2.0816,8.4473,4.0711,1,1,1
2.0896,8.4437,4.071,1,1,1
2.088,8.4487,4.0711,1,1,1
2.0807,8.4547,4.0712,1,1,1
2.0829,8.4596,4.0713,1,1,1
2.0876,8.4554,4.0712,1,1,1
2.0848,8.4599,4.0712,1,1,1
2.0924,8.4504,4.0711,1,1,1
2.0965,8.4454,4.071,1,1,1
2.0916,8.4569,4.0711,1,1,1
2.097,8.4557,4.0711,1,1,1
2.1007,8.4244,4.0709,1,1,1
2.1021,8.431,4.0709,1,1,1
2.1082,8.424,4.071,1,1,1
2.1015,8.4374,4.071,1,1,1
2.1046,8.439,4.0709,1,1,1
2.1084,8.4359,4.0709,1,1,1
2.1081,8.4413,4.0709,1,1,1
2.1121,8.4241,4.071,1,1,1
2.1138,8.4315,4.0709,1,1,1
2.1196,8.4264,4.0709,1,1,1
2.1144,8.4368,4.0709,1,1,1
2.1127,8.4397,4.0709,1,1,1
2.1176,8.4367,4.0709,1,1,1
2.1189,8.4393,4.0708,1,1,1
2.102,8.4498,4.071,1,1,1
2.1066,8.4456,4.0709,1,1,1
2.107,8.4574,4.071,1,1,1
2.108,8.4624,4.071,1,1,1
2.1127,8.4481,4.0709,1,1,1
2.1157,8.4436,4.0708,1,1,1
2.1163,8.4487,4.0708,1,1,1
2.1106,8.4575,4.0709,1,1,1
2.113,8.4593,4.0709,1,1,1
2.1149,8.4534,4.0708,1,1,1
2.1195,8.4597,4.0708,1,1,1
2.1221,8.3849,4.0709,1,1,1
2.1202,8.393,4.071,1,1,1
2.1272,8.3843,4.0709,1,1,1
2.1276,8.3917,4.0711,1,1,1
2.1224,8.394,4.0711,1,1,1
2.1223,8.4002,4.0711,1,1,1
2.1262,8.3963,4.0711,1,1,1
2.1294,8.4002,4.0711,1,1,1
2.1326,8.3858,4.071,1,1,1
2.1329,8.3897,4.071,1,1,1
2.1368,8.3847,4.0709,1,1,1
2.1393,8.3906,4.071,1,1,1
2.1316,8.3958,4.0711,1,1,1
2.1342,8.4012,4.0711,1,1,1
2.1359,8.3965,4.071,1,1,1
2.1383,8.3995,4.071,1,1,1
2.1238,8.4084,4.0711,1,1,1
2.1268,8.4049,4.0711,1,1,1
2.1295,8.4096,4.0711,1,1,1
2.1236,8.415,4.071,1,1,1
2.1236,8.4197,4.071,1,1,1
2.1284,8.4156,4.071,1,1,1
2.133,8.4062,4.071,1,1,1
2.1315,8.4109,4.071,1,1,1
2.1379,8.4058,4.071,1,1,1
2.1361,8.4088,4.071,1,1,1
2.1323,8.414,4.071,1,1,1
2.1321,8.4211,4.0708,1,1,1
2.1352,8.4151,4.0709,1,1,1
2.1374,8.4207,4.0707,1,1,1
2.1434,8.3837,4.0708,1,1,1
2.1472,8.3863,4.0707,1,1,1
2.1472,8.3905,4.0708,1,1,1
2.1416,8.3958,4.0709,1,1,1
2.1425,8.4002,4.0709,1,1,1
2.1474,8.3963,4.0708,1,1,1
2.1463,8.399,4.0708,1,1,1
2.152,8.3909,4.0706,1,1,1
2.1556,8.3842,4.0705,1,1,1
2.1572,8.3913,4.0704,1,1,1
2.1499,8.3935,4.0707,1,1,1
2.1523,8.3998,4.0706,1,1,1
2.1569,8.3946,4.0705,1,1,1
2.142,8.4075,4.0708,1,1,1
2.1436,8.41,4.0707,1,1,1
2.1496,8.4031,4.0706,1,1,1
2.1421,8.415,4.0707,1,1,1
2.1448,8.4217,4.0705,1,1,1
2.1468,8.4151,4.0705,1,1,1
2.1486,8.4183,4.0704,1,1,1
2.1532,8.405,4.0705,1,1,1
2.1524,8.4108,4.0704,1,1,1
2.1576,8.4051,4.0703,1,1,1
2.1582,8.4113,4.0702,1,1,1
2.1535,8.4213,4.0701,1,1,1
2.1583,8.4157,4.07,1,1,1
2.1213,8.4249,4.0709,1,1,1
2.1267,8.4246,4.0709,1,1,1
2.1286,8.4298,4.0708,1,1,1
2.1214,8.4375,4.0708,1,1,1
2.1216,8.4416,4.0708,1,1,1
2.1276,8.4407,4.0706,1,1,1
2.1327,8.4251,4.0708,1,1,1
2.1342,8.4328,4.0706,1,1,1
2.1365,8.4251,4.0707,1,1,1
2.1362,8.433,4.0705,1,1,1
2.1313,8.4353,4.0706,1,1,1
2.1329,8.4401,4.0705,1,1,1
2.1388,8.436,4.0704,1,1,1
2.1214,8.4516,4.0707,1,1,1
2.1285,8.4461,4.0706,1,1,1
2.1277,8.453,4.0706,1,1,1
2.1293,8.4565,4.0705,1,1,1
2.1283,8.4585,4.0706,1,1,1
2.132,8.4455,4.0705,1,1,1
2.1324,8.4501,4.0704,1,1,1
2.1373,8.4448,4.0703,1,1,1
2.1347,8.4557,4.0704,1,1,1
2.1331,8.4604,4.0704,1,1,1
2.1369,8.4543,4.0703,1,1,1
2.1414,8.4255,4.0705,1,1,1
2.1427,8.4296,4.0703,1,1,1
2.1462,8.425,4.0703,1,1,1
2.1462,8.4326,4.0701,1,1,1
2.144,8.434,4.0702,1,1,1
2.1419,8.4393,4.0702,1,1,1
2.1476,8.4356,4.07,1,1,1
2.1526,8.4259,4.07,1,1,1
2.153,8.4304,4.0699,1,1,1
2.1573,8.4269,4.0698,1,1,1
2.1537,8.435,4.0697,1,1,1
2.1528,8.4402,4.0697,1,1,1
2.1569,8.4386,4.0695,1,1,1
2.1409,8.4432,4.0702,1,1,1
2.143,8.4504,4.07,1,1,1
2.1459,8.4474,4.0699,1,1,1
2.1438,8.457,4.07,1,1,1
2.1431,8.4592,4.0701,1,1,1
2.1472,8.455,4.0698,1,1,1
2.1535,8.4482,4.0696,1,1,1
2.1571,8.4464,4.0694,1,1,1
2.1566,8.4496,4.0694,1,1,1
2.1541,8.4538,4.0695,1,1,1
2.1517,8.4607,4.0697,1,1,1
2.1578,8.4556,4.0693,1,1,1
2.1593,8.4597,4.0693,1,1,1
2.0945,8.5382,3.9389,1,1,1
2.0936,8.5393,3.9538,1,1,1
2.0852,8.5389,3.9609,1,1,1
2.0815,8.541,3.9765,1,1,1
2.0935,8.5402,3.9613,1,1,1
2.0966,8.5405,3.9599,1,1,1
2.0994,8.5426,3.9763,1,1,1
2.1096,8.542,3.9403,1,1,1
2.1058,8.5425,3.9645,1,1,1
2.1024,8.5422,3.9674,1,1,1
2.1105,8.543,3.9603,1,1,1
2.0864,8.5425,3.9856,1,1,1
2.0913,8.5421,3.9792,1,1,1
2.0827,8.4716,4.0713,1,1,1
2.0892,8.4695,4.0712,1,1,1
2.0812,8.4763,4.0713,1,1,1
2.0841,8.4823,4.0712,1,1,1
2.0873,8.4798,4.0712,1,1,1
2.0915,8.4639,4.0712,1,1,1
2.0958,8.4659,4.0711,1,1,1
2.0961,8.4703,4.0711,1,1,1
2.0931,8.4742,4.0711,1,1,1
2.0907,8.4809,4.0711,1,1,1
2.0961,8.474,4.0711,1,1,1
2.0832,8.4879,4.071,1,1,1
2.0879,8.4889,4.071,1,1,1
2.0824,8.4951,4.0708,1,1,1
2.0861,8.4947,4.0708,1,1,1
2.0909,8.4849,4.071,1,1,1
2.0965,8.4926,4.0708,1,1,1
2.091,8.502,4.0704,1,1,1
2.0977,8.5016,4.0705,1,1,1
2.1015,8.4644,4.0711,1,1,1
2.1069,8.4696,4.071,1,1,1
2.1065,8.4736,4.071,1,1,1
2.1171,8.4661,4.0708,1,1,1
2.1121,8.4775,4.0709,1,1,1
2.1179,8.4824,4.0709,1,1,1
2.1021,8.4843,4.071,1,1,1
2.106,8.4846,4.071,1,1,1
2.1075,8.4901,4.0709,1,1,1
2.1016,8.4956,4.0708,1,1,1
2.1036,8.5011,4.0706,1,1,1
2.1116,8.4911,4.0709,1,1,1
2.1183,8.4852,4.0709,1,1,1
2.1162,8.4925,4.0709,1,1,1
2.1103,8.5007,4.0707,1,1,1
2.1177,8.4997,4.0708,1,1,1
2.0813,8.5093,4.0698,1,1,1
2.0856,8.5122,4.0696,1,1,1
2.0815,8.5149,4.0692,1,1,1
2.0907,8.5054,4.0702,1,1,1
2.0961,8.505,4.0703,1,1,1
2.093,8.5189,4.0691,1,1,1
2.0823,8.5249,4.0678,1,1,1
2.0804,8.5376,4.0649,1,1,1
2.0831,8.5414,4.064,1,1,1
2.0855,8.5422,4.064,1,1,1
2.0946,8.5237,4.0686,1,1,1
2.0971,8.5393,4.066,1,1,1
2.1069,8.5048,4.0705,1,1,1
2.1022,8.5149,4.0699,1,1,1
2.1064,8.5193,4.0697,1,1,1
2.1116,8.5062,4.0706,1,1,1
2.1134,8.5103,4.0705,1,1,1
2.1179,8.5151,4.0704,1,1,1
2.1024,8.53,4.0683,1,1,1
2.1076,8.5326,4.0683,1,1,1
2.1072,8.5342,4.068,1,1,1
2.1134,8.5274,4.0693,1,1,1
2.1179,8.5302,4.0693,1,1,1
2.1101,8.5351,4.0681,1,1,1
2.1154,8.5423,4.0672,1,1,1
2.1245,8.4677,4.0707,1,1,1
2.1212,8.481,4.0709,1,1,1
2.1266,8.4766,4.0707,1,1,1
2.1311,8.4662,4.0705,1,1,1
2.1376,8.4666,4.0703,1,1,1
2.1301,8.4748,4.0707,1,1,1
2.1326,8.4818,4.0707,1,1,1
2.1371,8.4825,4.0706,1,1,1
2.1294,8.4914,4.0709,1,1,1
2.1382,8.4882,4.0707,1,1,1
2.1366,8.5008,4.0709,1,1,1
2.1421,8.4661,4.0702,1,1,1
2.1427,8.4724,4.0703,1,1,1
2.1479,8.4651,4.0699,1,1,1
2.1463,8.476,4.0702,1,1,1
2.1486,8.4809,4.0702,1,1,1
2.1528,8.4656,4.0697,1,1,1
2.1589,8.4711,4.0695,1,1,1
2.1561,8.476,4.0698,1,1,1
2.1598,8.4817,4.0698,1,1,1
2.1414,8.4883,4.0706,1,1,1
2.1421,8.4942,4.0708,1,1,1
2.1454,8.4955,4.0707,1,1,1
2.1514,8.4888,4.0704,1,1,1
2.1522,8.4973,4.0706,1,1,1
2.1554,8.4958,4.0704,1,1,1
2.1551,8.4991,4.0706,1,1,1
2.1228,8.5042,4.0708,1,1,1
2.1272,8.5067,4.0709,1,1,1
2.1278,8.5086,4.0709,1,1,1
2.1232,8.5206,4.0703,1,1,1
2.1311,8.5061,4.0709,1,1,1
2.1317,8.5109,4.0709,1,1,1
2.1358,8.5187,4.0708,1,1,1
2.1277,8.5293,4.07,1,1,1
2.1225,8.536,4.0689,1,1,1
2.1248,8.538,4.0688,1,1,1
2.1268,8.5409,4.0685,1,1,1
2.1393,8.5236,4.0707,1,1,1
2.1338,8.5335,4.0699,1,1,1
2.1308,8.543,4.0684,1,1,1
2.1369,8.5384,4.0695,1,1,1
2.1408,8.5077,4.071,1,1,1
2.1451,8.5155,4.071,1,1,1
2.1505,8.508,4.0709,1,1,1
2.1541,8.5124,4.0709,1,1,1
2.1535,8.5304,4.0707,1,1,1
2.1568,8.5356,4.0705,1,1,1
2.163,8.3857,4.0702,1,1,1
2.1631,8.3884,4.0702,1,1,1
2.1665,8.3841,4.0701,1,1,1
2.1681,8.3906,4.0701,1,1,1
2.1624,8.395,4.0702,1,1,1
2.1618,8.4007,4.0702,1,1,1
2.1676,8.3955,4.07,1,1,1
2.1672,8.4006,4.07,1,1,1
2.1723,8.391,4.0699,1,1,1
2.1789,8.3901,4.0697,1,1,1
2.1726,8.3962,4.0699,1,1,1
2.1719,8.4017,4.0698,1,1,1
2.178,8.3961,4.0697,1,1,1
2.1767,8.4001,4.0697,1,1,1
2.164,8.4057,4.07,1,1,1
2.162,8.4106,4.07,1,1,1
2.1673,8.4116,4.0698,1,1,1
2.1623,8.4148,4.0699,1,1,1
2.1633,8.4209,4.0697,1,1,1
2.1676,8.4145,4.0697,1,1,1
2.172,8.4041,4.0698,1,1,1
2.1741,8.4104,4.0695,1,1,1
2.1779,8.4111,4.0694,1,1,1
2.1735,8.4144,4.0694,1,1,1
2.1767,8.4153,4.0693,1,1,1
2.1772,8.4207,4.0691,1,1,1
2.1824,8.3869,4.0696,1,1,1
2.1813,8.3889,4.0696,1,1,1
2.1878,8.3843,4.0695,1,1,1
2.1871,8.3901,4.0695,1,1,1
2.1836,8.3961,4.0695,1,1,1
2.1818,8.3981,4.0695,1,1,1
2.1884,8.3948,4.0694,1,1,1
2.188,8.3986,4.0693,1,1,1
2.1918,8.3914,4.0694,1,1,1
2.1973,8.3859,4.0693,1,1,1
2.1973,8.3902,4.0693,1,1,1
2.193,8.3953,4.0693,1,1,1
2.1921,8.3994,4.0693,1,1,1
2.197,8.3961,4.0692,1,1,1
2.1976,8.4006,4.0692,1,1,1
2.1812,8.4058,4.0694,1,1,1
2.1824,8.4099,4.0692,1,1,1
2.1882,8.4057,4.0692,1,1,1
2.1873,8.4116,4.069,1,1,1
2.1827,8.416,4.069,1,1,1
2.1825,8.4205,4.0689,1,1,1
2.1872,8.4148,4.0689,1,1,1
2.1857,8.4213,4.0688,1,1,1
2.1924,8.4048,4.0691,1,1,1
2.1934,8.4102,4.069,1,1,1
2.1959,8.4064,4.069,1,1,1
2.1969,8.4101,4.0689,1,1,1
2.1937,8.4133,4.0689,1,1,1
2.1916,8.4202,4.0687,1,1,1
2.1972,8.4161,4.0687,1,1,1
2.1966,8.4206,4.0686,1,1,1
2.1627,8.4306,4.0694,1,1,1
2.1675,8.4249,4.0694,1,1,1
2.1627,8.4336,4.0693,1,1,1
2.1611,8.4391,4.0693,1,1,1
2.1665,8.4403,4.069,1,1,1
2.1717,8.4296,4.069,1,1,1
2.1783,8.4252,4.0689,1,1,1
2.172,8.4362,4.0688,1,1,1
2.1727,8.4423,4.0687,1,1,1
2.1767,8.435,4.0687,1,1,1
2.1777,8.4399,4.0685,1,1,1
2.1601,8.4464,4.0692,1,1,1
2.1624,8.4511,4.0691,1,1,1
2.1681,8.4468,4.0688,1,1,1
2.1621,8.4545,4.0691,1,1,1
2.1679,8.4558,4.0688,1,1,1
2.167,8.4592,4.0689,1,1,1
2.1704,8.447,4.0687,1,1,1
2.1737,8.4502,4.0685,1,1,1
2.1759,8.4456,4.0685,1,1,1
2.1752,8.4527,4.0685,1,1,1
2.1729,8.455,4.0686,1,1,1
2.1748,8.4541,4.0685,1,1,1
2.1774,8.4589,4.0684,1,1,1
2.1804,8.4254,4.0688,1,1,1
2.1828,8.4281,4.0686,1,1,1
2.1875,8.4258,4.0686,1,1,1
2.1884,8.4293,4.0684,1,1,1
2.1798,8.4351,4.0685,1,1,1
2.1862,8.4352,4.0683,1,1,1
2.1878,8.4415,4.0681,1,1,1
2.1923,8.4252,4.0685,1,1,1
2.1947,8.4308,4.0682,1,1,1
2.1971,8.4294,4.0683,1,1,1
2.1928,8.4355,4.0681,1,1,1
2.1983,8.4339,4.0681,1,1,1
2.1808,8.4451,4.0683,1,1,1
2.1838,8.4515,4.0681,1,1,1
2.1863,8.4467,4.0681,1,1,1
2.186,8.4513,4.068,1,1,1
2.183,8.46,4.0682,1,1,1
2.1885,8.457,4.068,1,1,1
2.1967,8.4495,4.0678,1,1,1
2.1946,8.4565,4.0678,1,1,1
2.1929,8.4602,4.0679,1,1,1
2.1977,8.4597,4.0678,1,1,1
2.2026,8.3852,4.0693,1,1,1
2.2009,8.3921,4.0693,1,1,1
2.2075,8.3852,4.0693,1,1,1
2.2091,8.391,4.0693,1,1,1
2.2033,8.3953,4.0692,1,1,1
2.2021,8.4004,4.0691,1,1,1
2.2077,8.3944,4.0692,1,1,1
2.2086,8.4002,4.0691,1,1,1
2.2134,8.3917,4.0693,1,1,1
2.2177,8.3866,4.0694,1,1,1
2.2167,8.392,4.0694,1,1,1
2.2136,8.3958,4.0693,1,1,1
2.2126,8.3981,4.0692,1,1,1
2.2168,8.3961,4.0693,1,1,1
2.2184,8.4002,4.0693,1,1,1
2.2002,8.4072,4.069,1,1,1
2.2063,8.4056,4.069,1,1,1
2.2055,8.4093,4.0689,1,1,1
2.2031,8.4137,4.0688,1,1,1
2.2017,8.4207,4.0685,1,1,1
2.2087,8.4165,4.0687,1,1,1
2.2092,8.4221,4.0685,1,1,1
2.2134,8.406,4.0691,1,1,1
2.2188,8.4051,4.0692,1,1,1
2.2173,8.4103,4.069,1,1,1
2.2118,8.415,4.0688,1,1,1
2.2121,8.4201,4.0686,1,1,1
2.2185,8.4151,4.0689,1,1,1
2.2185,8.4222,4.0687,1,1,1
2.2231,8.384,4.0695,1,1,1
2.224,8.3888,4.0695,1,1,1
2.2276,8.3849,4.0696,1,1,1
2.223,8.3944,4.0695,1,1,1
2.2223,8.4008,4.0694,1,1,1
2.2281,8.397,4.0696,1,1,1
2.2277,8.401,4.0695,1,1,1
2.2328,8.385,4.0697,1,1,1
2.2324,8.39,4.0698,1,1,1
2.2382,8.388,4.0699,1,1,1
2.2348,8.3951,4.0698,1,1,1
2.2324,8.4027,4.0697,1,1,1
2.2379,8.3953,4.0699,1,1,1
2.2365,8.4003,4.0699,1,1,1
2.2225,8.4049,4.0693,1,1,1
2.2224,8.4106,4.0692,1,1,1
2.2287,8.4038,4.0695,1,1,1
2.2259,8.4102,4.0693,1,1,1
2.224,8.4173,4.0691,1,1,1
2.2234,8.4212,4.0689,1,1,1
2.2275,8.4153,4.0693,1,1,1
2.2265,8.4188,4.0691,1,1,1
2.2332,8.4095,4.0696,1,1,1
2.2372,8.406,4.0699,1,1,1
2.2374,8.4095,4.0698,1,1,1
2.232,8.4144,4.0695,1,1,1
2.2325,8.4195,4.0694,1,1,1
2.2374,8.4211,4.0697,1,1,1
2.2033,8.4256,4.0683,1,1,1
2.2045,8.4311,4.0682,1,1,1
2.2056,8.4257,4.0684,1,1,1
2.2077,8.4297,4.0682,1,1,1
2.2021,8.4339,4.0681,1,1,1
2.2023,8.4414,4.0679,1,1,1
2.2063,8.4341,4.0681,1,1,1
2.2126,8.4259,4.0684,1,1,1
2.2124,8.4314,4.0683,1,1,1
2.2168,8.423,4.0686,1,1,1
2.2173,8.4309,4.0684,1,1,1
2.2108,8.4332,4.0682,1,1,1
2.2101,8.4394,4.068,1,1,1
2.2035,8.4452,4.0678,1,1,1
2.2047,8.4496,4.0677,1,1,1
2.2077,8.4466,4.0678,1,1,1
2.2072,8.4506,4.0677,1,1,1
2.1998,8.4559,4.0677,1,1,1
2.2023,8.4614,4.0677,1,1,1
2.2058,8.4567,4.0677,1,1,1
2.2133,8.4431,4.068,1,1,1
2.2174,8.444,4.0681,1,1,1
2.2167,8.4516,4.0679,1,1,1
2.2106,8.4543,4.0677,1,1,1
2.2116,8.4611,4.0677,1,1,1
2.216,8.4602,4.0678,1,1,1
2.2227,8.4259,4.0688,1,1,1
2.2223,8.4292,4.0686,1,1,1
2.2267,8.4272,4.0689,1,1,1
2.227,8.4301,4.0688,1,1,1
2.2226,8.4344,4.0685,1,1,1
2.2224,8.441,4.0683,1,1,1
2.2276,8.4335,4.0688,1,1,1
2.2268,8.4397,4.0686,1,1,1
2.2326,8.4252,4.0693,1,1,1
2.5974,8.3221,4.0612,1,1,1
2.5831,8.3254,4.0613,1,1,1
2.5798,8.3303,4.0615,1,1,1
2.5877,8.3268,4.0612,1,1,1
2.5869,8.3306,4.0613,1,1,1
2.5822,8.3341,4.0615,1,1,1
2.5824,8.3413,4.0616,1,1,1
2.5869,8.3345,4.0613,1,1,1
2.5865,8.3415,4.0615,1,1,1
2.5924,8.3247,4.0612,1,1,1
2.5925,8.33,4.0612,1,1,1
2.5966,8.3253,4.0612,1,1,1
2.5989,8.3313,4.0613,1,1,1
2.5922,8.3412,4.0614,1,1,1
2.5983,8.3335,4.0613,1,1,1
2.5972,8.3422,4.0614,1,1,1
2.5619,8.3431,4.0629,1,1,1
2.5621,8.3508,4.0632,1,1,1
2.567,8.345,4.0626,1,1,1
2.5679,8.3495,4.0627,1,1,1
2.5632,8.3575,4.0634,1,1,1
2.5623,8.3611,4.0636,1,1,1
2.5669,8.3562,4.063,1,1,1
2.5675,8.3604,4.0631,1,1,1
2.5732,8.3465,4.0623,1,1,1
2.5722,8.3487,4.0624,1,1,1
2.5795,8.345,4.0619,1,1,1
2.577,8.35,4.0621,1,1,1
2.5738,8.3557,4.0625,1,1,1
2.5718,8.3616,4.0628,1,1,1
2.5775,8.3562,4.0623,1,1,1
2.5783,8.3611,4.0624,1,1,1
2.5639,8.3651,4.0636,1,1,1
2.562,8.3705,4.0639,1,1,1
2.5666,8.3659,4.0634,1,1,1
2.5678,8.3697,4.0634,1,1,1
2.5625,8.3748,4.0639,1,1,1
2.5642,8.3793,4.0638,1,1,1
2.5681,8.3763,4.0635,1,1,1
2.5659,8.3812,4.0637,1,1,1
2.5725,8.3641,4.0629,1,1,1
2.5721,8.3728,4.0631,1,1,1
2.5767,8.3661,4.0626,1,1,1
2.5768,8.3691,4.0627,1,1,1
2.5716,8.3767,4.0632,1,1,1
2.573,8.3795,4.0632,1,1,1
2.5757,8.3763,4.0629,1,1,1
2.5775,8.3811,4.0629,1,1,1
2.5842,8.3514,4.0618,1,1,1
2.587,8.3465,4.0616,1,1,1
2.5873,8.3505,4.0617,1,1,1
2.5849,8.3501,4.0618,1,1,1
2.5831,8.3546,4.062,1,1,1
2.5817,8.3588,4.0621,1,1,1
2.5871,8.3547,4.0618,1,1,1
2.5876,8.361,4.062,1,1,1
2.5937,8.3452,4.0615,1,1,1
2.5923,8.3516,4.0616,1,1,1
2.5973,8.3468,4.0615,1,1,1
2.5989,8.351,4.0616,1,1,1
2.5926,8.355,4.0617,1,1,1
2.5915,8.36,4.0618,1,1,1
2.5978,8.3557,4.0616,1,1,1
2.5965,8.359,4.0617,1,1,1
2.5953,8.3617,4.0618,1,1,1
2.5814,8.3659,4.0624,1,1,1
2.5826,8.3698,4.0624,1,1,1
2.5879,8.3648,4.062,1,1,1
2.5857,8.3715,4.0623,1,1,1
2.5823,8.375,4.0625,1,1,1
2.5822,8.3818,4.0626,1,1,1
2.5877,8.3747,4.0623,1,1,1
2.5871,8.3793,4.0624,1,1,1
2.5922,8.3662,4.0619,1,1,1
2.5934,8.3711,4.062,1,1,1
2.5983,8.3647,4.0618,1,1,1
2.5993,8.3683,4.0619,1,1,1
2.5938,8.3756,4.0621,1,1,1
2.5989,8.3761,4.062,1,1,1
2.5959,8.3806,4.0622,1,1,1
2.602,8.3046,4.0613,1,1,1
2.603,8.3107,4.0613,1,1,1
2.6067,8.303,4.0615,1,1,1
2.6092,8.3098,4.0616,1,1,1
2.6023,8.316,4.0613,1,1,1
2.6028,8.3205,4.0613,1,1,1
2.608,8.3163,4.0616,1,1,1
2.6064,8.3203,4.0615,1,1,1
2.6099,8.3043,4.0617,1,1,1
2.6102,8.3103,4.0617,1,1,1
2.6137,8.311,4.0619,1,1,1
2.6181,8.3046,4.0622,1,1,1
2.6158,8.3094,4.062,1,1,1
2.6108,8.3144,4.0617,1,1,1
2.6147,8.3169,4.0619,1,1,1
2.6104,8.3204,4.0617,1,1,1
2.6143,8.319,4.0619,1,1,1
2.6157,8.3157,4.062,1,1,1
2.6173,8.3184,4.0621,1,1,1
2.6038,8.3315,4.0614,1,1,1
2.609,8.3247,4.0616,1,1,1
2.6073,8.3314,4.0615,1,1,1
2.602,8.3355,4.0614,1,1,1
2.6027,8.3404,4.0615,1,1,1
2.6061,8.335,4.0615,1,1,1
2.6078,8.3399,4.0616,1,1,1
2.6102,8.3263,4.0617,1,1,1
2.6105,8.3316,4.0617,1,1,1
2.6131,8.3311,4.0618,1,1,1
2.6175,8.3318,4.0621,1,1,1
2.6128,8.3368,4.0618,1,1,1
2.6146,8.3421,4.0619,1,1,1
2.6187,8.3374,4.0622,1,1,1
2.6174,8.3399,4.0621,1,1,1
2.6222,8.3101,4.0625,1,1,1
2.6269,8.3056,4.0628,1,1,1
2.6274,8.3108,4.0628,1,1,1
2.6222,8.3161,4.0624,1,1,1
2.623,8.3204,4.0625,1,1,1
2.6281,8.3156,4.0629,1,1,1
